# 3D point list with one line of data per point:
#   POINT3D_ID, X, Y, Z, R, G, B, ERROR, TRACK[] as (IMAGE_ID, POINT2D_IDX)
# Number of points: 387, mean track length: 4.0918640372609252
8911 -14.436376531985459 2.9856316554197329 29.917832048568076 95 87 68 1.6213000398351436 4 8882 8 7321 3 8921
8912 -1.3726363976562077 1.8517237080937139 21.903794024589942 45 58 40 0.86864469767094599 7 9643 3 8923 12 3033
8915 40.57773867657199 9.6052326881535066 69.259064879775011 143 123 97 1.4648144780275969 4 8948 6 9533 3 8951 7 9774 10 7760 17 9802 11 7842
8916 41.19462524204544 9.7324322909528576 69.715133791718998 98 89 74 0.65142480561676241 17 10680 3 8952 6 10356 7 7937
8917 41.216788556151272 9.7407947817066187 69.766086686422241 98 89 74 0.51445326017154536 17 10681 3 8953 6 10357
3831 2.5434375601590009 4.63058473594812 30.093201649169057 95 75 48 1.0996448385886974 4 4073 15 4399 8 7481 2 7098 9 4501 19 8282 12 3409 1 3817 10 4259 20 4337
8918 -2.4615220290020945 1.9724976074108556 21.358345713946846 235 255 223 1.4477236784757979 8 9123 3 8961 2 8749 19 7935 20 7575
8919 -12.512014031312965 2.4463264530348408 24.602178447469885 63 58 39 0.10243315555482813 7 10564 3 8962
8920 -2.5506349801282631 2.0759601895079669 21.281928386130822 246 255 242 0.71221188572804595 8 9141 3 8974 2 8765 12 3111
8921 -2.5465911592000712 2.0741502838978598 21.261320789388368 246 255 242 0.89907800163037055 8 9142 3 8975 2 8764 19 7966
8923 -12.645013923546438 2.6762335123198588 25.17721388940214 57 55 40 1.9145538554967694 7 9717 17 9631 3 8980
8925 -14.548092195693116 3.0752780652077853 26.961159258580146 142 133 99 0.13372038616982274 16 10127 3 8990
8927 11.110337208129877 4.9907245082041944 36.794366615856795 91 84 65 0.40582743839560642 6 9528 3 8996
1411 -8.7204620580885681 2.8548673420595225 30.62868642677822 8 10 5 2.0155785207721522 7 4118 14 8071 17 7723 4 7105
8928 -13.699834907506757 3.0056406337900357 26.152444423745305 116 103 71 0.37085081405275938 16 10128 3 8997
8929 -12.518622651006558 3.1939574526352263 25.886400101045361 56 51 29 1.6326182320253739 13 10303 3 9010
8930 -7.706437145173866 4.3163637217186643 30.489937108705089 57 74 42 0.70279501627305596 13 10369 3 9024 12 5753 11 9720
8931 -2.8620884080310005 2.7122600688017977 21.903801679694642 29 34 26 1.6161930724681812 7 9757 3 9025
8932 -12.386959995695953 3.8055021202175188 26.681213406434008 59 57 34 0.61147310210215622 8 9237 3 9042
8937 14.604252253838981 4.0308645600841331 23.318183902053132 65 70 35 1.8651613599698962 4 9801 8 7509 3 9080
8938 2.2516599657992264 6.0696863307007112 30.351011595427995 97 81 56 1.2915471954515207 8 9296 3 9109 2 7188 9 8267 19 8392 12 3540 1 4030 20 4504
8940 -9.5235903051505328 6.5569215347707468 30.615796696208449 34 35 27 1.5913424578082775 4 7433 3 9135 2 8920 1 7124
8942 -14.490454161268168 6.7327760636222109 31.081714027853966 9 9 8 0.25305426120187979 4 9093 3 9144
8943 -15.311538469796643 7.5560397462512379 33.831293404565059 144 147 135 0.25288660663942242 14 5079 3 9152
8944 -14.872247511366032 7.5327826417032409 33.737433067355916 151 151 141 0.60969109959698264 14 8497 3 9153
8945 -3.5955333156998899 3.9710506489726956 19.656306831444493 35 32 20 0.63925962799842284 8 9312 3 9168 12 3524
8946 -7.2497609220023058 7.014816335603137 30.387660075889467 34 36 33 1.5725247634598374 8 9373 3 9175 2 8947 9 8400 12 5936 10 8062 1 8858 11 8086
8947 -7.3346602118795836 6.9709278171274462 30.087643751237135 195 187 151 1.0203437485252826 8 9374 3 9176 2 8950 9 11023 12 5935 1 8860 11 8088
8948 -11.317218536128191 7.4135726116302285 30.315403526173959 18 18 16 1.4618344573960473 7 8202 8 9406 13 10575 3 9195 19 10397
8949 -8.0506176244773453 7.0238827658743395 28.801600975453482 241 228 173 1.1100689784890734 8 10163 3 9196 2 8973 1 9615
8951 3.0213521253198223 7.5372550244545575 27.336480573469114 191 191 189 1.0891618518316741 13 11483 3 9222 2 9694 9 10261 12 6001 1 8905 20 10758
8952 1.2250132573070842 8.391842923116684 27.198739602805009 0 0 0 0.17022976925696348 5 7294 15 10497
1437 1.6813515011486315 3.2657815616186472 29.525375379110393 107 93 66 1.3109967385042864 7 7849 14 8196 17 7821 15 7655 8 7337 3 7199
8954 -4.2500396033110661 5.9255648304596242 18.999953536519214 83 104 65 1.4853194096659108 8 9459 3 9246 13 10622
8955 -4.2601735111268626 6.0646067107153536 18.95142994196344 86 108 61 1.8473276148990307 7 9994 3 9248
8958 13.606739738697193 -11.65086131438548 23.873432716650896 59 52 42 0.53091999097648801 8 9512 3 9292 9 10360
1442 1.7641777290969911 3.3744166714484143 29.614135638477695 79 65 46 0.92562351507122498 6 7664 14 8206 17 7839 4 7223 15 4147 16 4614 3 7213 2 6994
8959 13.606739738697181 -11.650861314385471 23.873432716650871 59 52 42 0.53091999097635656 8 9513 3 9293 9 10361
11617 -5.4052062264876621 -6.4776653536210604 24.107120038067361 51 64 51 1.2475842252303497 8 635 9 5513 12 417
1443 -8.7889851807683446 3.8182610569963633 30.4062820803383 49 71 35 0.93269812327783619 7 7915 14 8215 4 7250 8 7427 19 8229
3874 -6.8887862803231208 10.344364678466171 24.932724059240623 0 0 0 0.13281368862873283 6 5039 17 5151
8961 9.8000141028151813 -11.67740919469732 26.284396058765022 99 100 86 0.71907124996496097 7 8351 3 9313
8963 -13.654052117966527 -11.107572431735205 29.776439173467843 190 189 161 0.32177215627284006 8 9549 3 9331
8965 -14.090593994903088 -10.343026706974051 29.948600165172497 34 34 26 1.7887245708670476 4 9307 3 9342 2 9123 1 9038
8966 12.286462223934329 -11.809388664152166 35.267050021540619 0 0 0 1.1655788953286741 5 6519 15 9827
3880 -10.688429031265429 -14.12574619583541 32.263639512314818 82 83 77 1.145042437193909 14 5477 15 5195 9 8586 8 7855
8967 12.286120585080011 -11.549339317252455 34.972086358574494 0 0 0 1.3279292568640395 5 6522 15 8252 16 8856
3881 -9.3313399307758988 -14.201853761004802 33.089915419291593 160 163 152 2.2930186924495946 7 162 15 5217 16 8758
8968 -15.446631008641321 -8.8529338806278144 31.055684451247597 69 74 34 1.0833810458101276 8 10293 3 9365 2 9144 12 7021 1 9060
8971 6.3673702728059762 -6.6943110287894729 22.501375823567898 61 57 46 1.0919679831422335 4 7820 7 8471 3 9378
8973 11.966248470014362 -7.4571567599259572 35.981863649293999 13 15 13 1.605664942913535 8 8203 3 9446 2 9233 9 10532 1 9173 10 10267
8974 -1.7638993728220966 -7.1047518333097495 34.928040558322756 164 193 182 1.2209961784875689 8 8184 3 9448 12 4399
8976 8.4780530822818712 -3.9529295793968573 21.745077971571643 164 184 129 0.92170403579843196 8 9756 3 9490
8977 -18.212900816263108 -4.3298078206436399 47.655327846997906 220 181 130 1.4529527767175225 4 9498 8 9804 3 9526 2 9327 9 10612 12 6423 1 9265 10 10355
8980 6.6216009583327802 -0.66607418834458498 25.479975834728339 125 146 77 0.62712604066659772 8 8718 3 9644
8983 39.222459760189992 7.8617680153588045 69.241261878793253 205 179 142 1.613701021250995 7 10570 14 11553 3 9761 20 9707
3897 -16.756415832170791 -8.3235660972754015 30.777415177864889 25 32 10 1.3303952490643918 14 5850 15 5516 17 5624 16 6002
8984 -8.7621526130732548 2.7316479286011917 31.188528815465272 75 99 63 1.3179923517331291 8 10018 18 9745 3 9763 2 9528 9 10886 19 10992 12 6696 1 8546 10 9614 11 10566 20 10623
3898 -16.399409601863365 -8.5788976757651554 31.856461407476736 64 58 34 0.51308653168734386 14 701 15 5526
8985 9.9642141690435739 1.9509204743161654 24.696996298022931 132 141 98 1.3989947475954148 13 11266 3 9765
8986 -8.9824710336507216 2.9319417022955285 31.464243030539293 42 50 36 0.44678770524964684 18 9770 3 9767
1470 1.9473266714112303 5.1955173696130217 29.865315003564998 73 58 45 0.76239635894608904 7 8032 14 8400 17 9797 15 9548 16 10282 13 10449 5 3966 18 9921 8 7522 3 7355 2 7129 19 10257 12 3463 1 7026 11 7915 20 9814
8988 40.939893543641588 9.0327306767655422 69.309594389647557 206 180 143 1.5302775487448468 4 9718 6 10338 3 9779 17 10675 11 9699 7 10584 20 9745
8991 -10.245438342258247 3.7161637173259003 31.502576949643405 19 31 11 1.3239180140323186 8 10046 13 10312 18 7947 19 10164 12 5693
8994 7.3749109308207856 7.313564009283045 35.506184055580732 89 90 81 1.9031781820751772 8 10115 3 9852 2 9619 9 10983 1 9557
1478 1.4482046385646774 6.5269432429484286 30.127777156309037 158 140 104 0.75006163955165883 7 8119 14 8527 17 4857 4 4350 13 5103 18 4875 8 7607 3 4392 2 4215 19 8425 12 3586 1 4092 10 4549 11 4553 20 4572
8995 -10.648093253163259 6.4008146758449618 31.453561119397389 55 66 50 1.5707442404221208 5 6252 3 9856 2 9629 1 9566
8996 -8.2300786564175414 6.653783339037747 31.357288216419612 93 100 82 1.6194866050670189 4 9816 3 9864 2 9639 12 5883
8998 -13.874003345933849 6.6022427431347772 29.743954088952371 0 0 0 1.8159892262280337 5 7232 15 10431 16 10340
9000 -9.0546629120048774 6.9672787849287747 29.067736046103835 50 62 49 1.1448007375611389 8 10159 18 10845 2 8967 19 11166 1 9607 10 10768 11 9909 20 10774
1484 -7.9152713907488206 6.941016140364213 28.975154026341084 217 206 161 1.384234801366208 7 8187 14 8573 4 7509 13 8699 8 7709 18 8245 3 7533 2 7320 9 8432 19 8520 1 7209
9002 7.4298382428449692 7.2474142187548338 28.409283620204189 61 59 53 2.0865834081777748 17 11222 3 9911 12 5955 1 8886
9003 -14.474836633281909 7.6842767382643471 30.444473134486554 11 10 8 1.1018165512338227 4 9848 8 10174 3 9914 9 11055
9006 -4.0713614370587274 5.0930593812461646 19.031806397704905 83 104 45 1.6276584558707428 8 10182 3 9934 2 9704 1 9644 9 11061
9007 -4.0801947557004947 5.1032335683759182 19.060852014781872 83 104 45 1.4651800220971367 8 10183 3 9935 9 11062
3921 -10.669224076390359 0.017453537817829119 29.254374847014923 191 215 155 1.1675594150856807 6 7043 17 9318 15 6946 16 7491 18 9422
9008 5.4253967951874573 11.231749523368618 28.137155004004569 145 141 130 1.1602358196469378 8 10204 13 11505 9 11088
1493 -14.437561170169193 7.7280485833354255 30.169067604077473 85 78 68 2.409286931733654 6 8012 7 9955 7 8230 17 8234 4 7544 13 8732
9011 13.926875224454632 -11.444990981061681 23.624779169120114 203 196 177 0.73836633782860817 8 9516 3 9985 9 10365
9013 -12.028267378080963 -14.113050993163164 32.611836468797975 33 34 36 1.3526929926006863 4 9922 3 9991
9016 -14.439955430181975 -13.712090565815561 34.722111669032287 185 184 156 2.0759366990107622 15 10569 18 10934 3 10006
1504 1.8012987592522476 11.778379525378893 27.194665715105089 172 173 168 1.6589195849947012 6 8082 14 8692 13 8837 8 7807 1 4427 10 4974 11 8229 20 8275
9022 -14.54154156936583 -8.76229362329609 30.052765978162597 158 131 88 1.6305395907630991 8 10716 3 10041
9024 10.607494290065587 -7.1985405982853035 35.737613136194327 90 97 81 0.71916034724159683 8 10364 3 10102 2 9865 9 11256 12 7088
3938 11.774965489878539 2.0896232357047597 24.183552565048355 141 108 73 0.54226163227358481 7 7747 15 7546 16 8091
9025 -19.274468309768487 -4.8512304417354128 51.028662675269508 105 85 61 1.8463962113326935 4 10060 3 10147 2 9916 9 10604 12 6414 1 9259 10 10352
9027 2.5218999842245693 -0.12179899974289783 28.08965643407884 136 183 141 0.74563229870341308 13 11786 18 11124 3 10207
9028 37.845341591169969 5.2794877731209446 69.15359019898105 4 4 6 1.7656034888408769 4 10156 6 10806 7 10537 3 10238 17 11148
3944 -1.2341986098205107 5.5784069687079949 35.909558594039723 6 7 9 1.0448187589551918 4 7302 15 7767 3 7295
9031 42.769821659745489 5.6170759481932198 68.393005306812711 65 59 43 1.2938229632549378 7 11055 8 10519 3 10246 2 10016
9032 -10.365023512504029 2.4669541634402203 34.783681020429626 14 16 15 0.1723325877857351 8 10516 3 10258 12 6671
9035 40.456641816424323 8.2246509101078367 69.198215927497642 72 57 34 1.5920643543426061 4 10176 6 10824 7 11066 3 10269 2 10028 17 11163 19 11554 11 10593
9036 39.261337005386181 8.5694972603897703 69.305147557686368 209 184 143 2.0446852862792726 4 10182 6 10827 7 11068 3 10273 14 11561 17 11166 11 10598 20 10646 19 11049
9037 -6.8047441285824721 6.7408605026953214 34.560600371844956 44 51 49 1.7986425163737205 8 10572 3 10310
1521 6.6456487075680197 -6.954011814324069 21.511811155904475 233 255 255 0.19486681466705047 14 8849 5 4441
3952 -13.965003955155344 5.5269161553742396 27.07459133845904 186 174 130 2.1135183940233593 14 4923 15 7827 16 8384
9039 -14.39844465673392 6.1589721871185503 30.894672411909859 150 152 144 0.43977278067249936 5 7755 3 10322
9040 -14.39844465673392 6.1589721871185503 30.894672411909859 150 152 144 0.43977278067249936 5 7756 3 10323
9041 -13.579344147199338 7.249189908103145 34.596365185022321 104 109 105 1.7483163998618192 13 10502 3 10330
9042 -14.340376413415092 5.3637434499362273 27.102031457946115 59 52 39 1.7788225239953195 4 10224 3 10331 2 10080 1 10020
9043 -8.6527352317329065 6.5636147998318943 31.079549139647206 92 100 79 1.2768723633403742 4 9814 8 10126 3 10332 2 9638 9 11500 1 9573 10 11196
9044 -8.3981709038702004 6.6980557339243987 31.15733507843327 29 32 25 1.598727690916586 4 10231 3 10336 2 10085 1 10030 10 11200
9045 -8.6819488882171196 6.6814617590742174 30.775584206477514 65 69 54 1.4216342177871442 13 11423 3 10338 18 10827
9046 0.92901261993008966 6.6689475461101448 30.346104385250452 109 96 70 1.3461822324622588 4 10237 18 11551 3 10340 15 10900 16 11628
9047 -7.0374251520131628 7.0260946832353746 30.516197694188048 114 119 98 1.4653980611219539 8 10604 16 11626 3 10349 15 10901 2 10099 9 11514 1 10041
9048 7.4346144920932868 7.5112524074613862 28.773520431703105 213 225 225 1.613804489267354 13 12273 14 11639 3 10373 9 12084
9049 -6.8701645959953748 7.2725364943917565 27.948395968620797 255 255 255 1.5562928571029417 8 10177 3 10377 2 10121 9 11052 12 6872 19 11180 1 9629 10 10783 11 9944 18 10058
9050 -6.8676514933419073 7.2787993465838774 27.954363498757349 255 255 255 1.355553936297583 8 10178 3 10378 2 10122 9 11053 1 9630 10 10784
9051 -11.725018441932407 7.5728901480814734 24.021958341136653 0 0 0 0.5986165955249394 7 11146 8 10912 13 11952
1535 -5.897150257587545 -4.9561539015676424 25.355939427523584 38 58 46 0.63964231780069747 7 8714 14 9113 17 8750
9052 13.005801385640515 12.109703864051694 28.702611449765246 222 208 199 0.7119215436975288 13 11532 3 10392
9055 8.9910217225611628 -11.55078877424142 24.715215609850087 122 119 104 0.38058545127811277 8 10672 3 10421 9 11129
9056 8.8345772507085059 -11.754092209887569 25.294684623255108 79 76 67 1.8698419173280667 5 7846 8 10239 3 10424 9 11131
9057 8.0428906754994482 -11.715624635784906 25.353403565642648 99 97 84 0.47901229280941393 8 10677 3 10426
1541 0.28948185215492306 -2.5857126894762841 18.061006607292537 249 255 255 1.9119864374266722 7 8896 14 9270 13 6687
9058 8.0467649298344295 -11.713216681661059 25.362007583814062 99 97 84 1.1088265953422036 8 10678 3 10427 9 11577
9059 -1.1682442482119375 -13.757930191617801 31.892139922015712 46 47 49 0.60659749149005848 4 10329 3 10430
9060 9.4560723408381904 -11.140361921318844 26.246414745229316 0 0 0 1.9481855804608703 13 11999 18 11339
1547 -5.0736303020406526 -1.6720142088952845 23.371232665414027 165 206 174 1.3381459945183907 6 8860 14 9456 17 9042 15 8826 16 9508
9064 -13.799061062936859 -10.066030134348521 29.688608991462655 188 191 182 1.8597035199050316 4 10360 3 10455
1548 5.8088515307201058 -2.1359863582970777 26.025904601329515 68 71 54 0.20659543287637289 14 9458 4 9526
9065 0.48485366003321784 -10.898208696162779 34.93250406479644 137 128 99 0.05709933317913999 4 10368 3 10466
9066 9.9325254636075542 -7.0401401059820792 34.700541049894305 32 43 29 1.113946353106287 8 10748 3 10500 12 7506
3981 -11.16763254406195 -14.202117504664628 34.004591728115912 180 174 158 1.1506892961801292 4 4805 15 8197 16 8777
9068 40.132900712355024 7.0226897375943347 69.339091207112901 208 182 147 1.3082452252299031 4 10500 6 11150 7 11345 8 10839 3 10588 17 11716
9070 36.436090061019797 7.726339179573082 69.157800015599676 208 183 152 1.5663700483073082 15 11166 16 12134 4 10776 19 11869 20 11455
9071 -9.7129170090386712 3.386010150517762 31.868446906883293 29 40 24 1.8556842220535721 8 10845 3 10595 2 10603 9 12052 12 7606
9072 -1.9391248230217681 2.5758631847787425 21.196043678990691 0 0 0 0.82323451582301455 13 11848 14 11872
9073 -14.390767854898073 4.7930950205911538 30.183996624456892 39 32 22 1.063788805139031 7 11361 3 10613
9074 1.9800093610960297 5.5621521455407565 29.984514435974429 101 84 58 1.2657332410645878 8 10859 3 10618 12 7626 19 11880
9075 -0.89674492940457051 6.4645492181120376 32.706267188819602 70 75 68 0.76096097586651545 4 10533 3 10619
3991 -18.001214764014883 -9.8693500778176428 30.949143592140487 45 50 19 2.2298493462618647 14 8860 15 8268 16 8872
9078 -10.071037670066991 6.1461915513964742 31.057754202499282 134 137 128 0.24511225493529351 4 10216 3 10625
1565 0.89329114040374358 -0.20463826514040268 30.286816017191107 112 145 98 0.66525016036277185 7 9270 17 9316
9082 -7.0224211671779795 7.0586482172670948 29.345752480255101 195 182 141 1.3557661060916233 8 10614 3 10654 2 10420 9 11837 12 7352 19 11644
3996 -9.3230888155842688 -5.0631661370217218 24.046592195316151 0 0 0 2.0158817316703033 6 5765 14 9038
9083 -9.1403933448131998 7.0960347623567213 28.683739633910186 66 71 48 1.3074326313950999 6 11210 3 10659 2 10110
9085 10.533369497882408 12.066248714017936 32.328869327925915 171 158 141 0.95953496737423949 6 11451 3 10673
1569 10.520148403979158 -0.040293808260587614 27.840665075027296 161 186 129 1.6383784932239831 7 9295 13 9900 8 8799 18 9358 3 8565 12 5186 11 9226 20 6921 19 7313
9086 9.2933772526095293 12.062899363485709 32.198705525932468 0 0 0 0.80513189473623814 5 8144 15 11240 16 11955
9087 6.6718310396743332 10.815885442542378 27.936202651786068 172 171 166 0.69519021980528628 15 11241 3 10676 1 10370
9090 7.185106461220486 -11.681741123832262 25.248100862381566 100 100 87 1.3241523772049009 8 10674 3 10700 9 11573 11 11261
9092 -10.817929324906178 -12.77084207888511 34.807707867256795 200 195 182 1.6588350407416514 14 11702 18 11360 2 10471 1 10130 11 11275 20 11563
9093 -7.8477984488737356 -11.517332789032158 34.967867524491325 247 254 247 1.4674831108020698 14 11991 18 11636 19 11982 12 7740 20 11789
9094 -14.195892957757232 -9.8600064199288777 29.937686105636676 99 97 72 1.3477143579761466 4 10636 3 10722
9095 2.1788074469848127 -8.7930191366940473 31.662000989932814 78 111 87 1.1440686898531758 8 11167 3 10741
9099 -2.896843509654889 2.8240773869414628 22.098564399406278 33 40 32 1.3289061111039058 7 11614 3 10871 15 11406
9100 8.3205041632898826 6.8409377412740309 36.182149880321163 0 0 0 0.068584259275201176 17 11930 18 11958
1585 -6.0685139830910391 2.5337036986285391 29.597077633591979 123 142 77 0.55428781561403384 7 9634 14 10015 17 9597 4 7071 9 7927
9102 0.31433502004502151 6.505866443203085 32.907738661174207 61 66 59 0.89613010056753006 4 10535 3 10882 2 10793
4016 1.6791471794961073 5.035611239025668 29.835859595919775 129 111 76 0.74082808419228885 14 10242 15 9543 13 10437 5 6186 2 8846 19 10249 12 5792 10 9818 11 9752 20 9804
9103 0.31433502004502151 6.505866443203085 32.907738661174207 61 66 59 0.89613010056753006 4 10534 3 10883 2 10794
9105 -14.850140666768413 6.0830912815494695 30.658633222759491 168 164 153 0.26750580382854483 4 10798 3 10886
9106 -14.441350295890405 7.050054678022347 31.701317414703777 99 100 92 0.26914674956687057 4 10810 3 10892
9107 3.3717180948570791 7.2864124412012226 29.374025731316159 169 180 184 1.9351425516656724 5 8377 8 10893 3 10898 2 10636 9 11834 1 10581 10 11524
9109 1.6828639399823631 7.5224708243662812 26.863352289521575 200 200 200 2.0222387086716278 7 11415 3 10908 2 10127 11 11216
9110 -4.5152592783190126 6.2481281282434216 19.308316306815939 225 222 217 1.2127928956039107 8 11293 3 10912 12 8082
9113 -13.031468602990044 -11.130104218015795 27.892217844012642 0 0 0 1.1608961362239272 8 11149 14 12227 11 11544
9116 -13.979804210897697 -10.273178518427144 29.627334631306322 77 79 64 2.0802433028932201 5 8184 3 10937
9117 -0.76909418293838172 -12.536444637304077 45.789863144650582 88 114 87 0.061626876075330711 13 12583 3 10951
9121 -0.46285966337737106 -0.79647797748693239 29.329766639332703 47 67 42 1.4290264984818721 8 11223 3 11020
9122 42.607706199822111 4.7619789258197489 69.060540552426957 5 5 3 0.53386903941199915 7 11790 8 11249 3 11043
9123 -8.4349970844240776 2.8095988302862787 31.227116401428358 41 55 32 1.948821485990972 5 8518 8 11258 3 11052 9 12218 12 8046
9126 -9.820971489187281 6.5398239482333222 30.953604459705431 81 87 77 1.6764984397014511 8 11102 3 11065 9 12075 10 11923
1610 2.8779159414337609 2.9825924621540696 29.718010845372831 89 104 63 0.83513929539862775 6 9446 14 10089 17 9676 4 8896 15 9421 16 10149
9127 -8.0204109462929178 6.9035380228096939 32.037078556702987 24 25 20 2.0710999786146935 13 12498 3 11066 18 11560
9129 -12.610433995536418 -11.467651485331595 29.01549121804586 232 225 196 0.23704225080644387 13 12713 3 11093
4048 6.0044808979660047 1.1199651561319444 30.025475271387659 133 141 128 1.4233233392713744 14 9897 15 10217 16 10957
9135 11.53454599589859 7.7582754062869066 35.732126317287467 80 75 69 1.2322367254335576 13 12843 3 11200
9137 -13.309493985487583 7.8341777979543821 32.145486592427837 70 74 73 0.22525358510109725 3 11205 2 10930
9139 9.4221141445467165 11.794332949676734 35.022302075109401 78 75 68 0.83665930087086871 18 11975 3 11214
9141 41.023607167040474 6.0603308613006899 70.878152670277828 10 10 8 1.2224183785493667 17 12164 3 11271
9142 -6.9679536335844698 2.2754729686643409 31.05686212896185 42 57 36 1.8510696729654406 8 11458 3 11274 2 11081 12 8286
9143 -9.0052229399139847 4.972027002165146 31.453374120324813 65 81 52 0.85087448063810545 8 11469 2 11009 9 12533 12 8363
9145 4.1740596719950123 6.8463822707748552 35.056567544539675 67 67 57 1.4647470985953857 8 11471 14 12598 2 11014 12 8302
4060 -13.927661120636264 6.1072789612892837 27.695712530540249 105 101 90 1.0307684731999514 14 11130 15 10427
9147 -14.01947754857045 7.4457979396792249 28.544726454466037 8 10 9 1.5015417235457504 7 11949 3 11294 2 11023 1 10977
9148 8.6481713027899829 -11.847117858233029 28.180883498489766 94 93 75 0.17749270095369701 4 11224 3 11302
9149 -7.3492083183503434 -13.17571575032764 34.890361457413164 179 185 181 1.514572325546387 14 12617 18 12176 2 11032 19 12550 12 8323 1 10991 10 12143 11 12181 20 12160
9152 -9.4199139528393001 7.7407161451357753 24.596577773789846 0 0 0 0.37839804048618358 15 11910 18 12223
9153 -2.2513915635116519 -14.338204459748445 32.75167425541013 0 0 0 1.2394881607322943 5 8834 8 11544
9156 -13.44930549633094 -10.678304339247779 32.227540242724096 201 203 189 1.9537377872513217 5 8839 3 11354
9157 -3.9794406097444703 -7.5542393511858839 30.95795107356804 119 159 125 0.1537658541498349 7 12110 3 11362
9158 6.0468081484732057 -3.2968923629830269 25.812562348901871 102 144 132 1.2823843030338313 8 11560 3 11369 19 12576
4072 -13.866456561630317 -13.518502511979003 35.311730236233032 232 226 200 1.4408614513217246 14 11281 15 10582 5 7385
9159 6.8046630878634584 -3.1587763345349757 21.903521877010679 212 241 210 0.14410707902652647 8 11557 3 11370
4073 -13.555481294263213 -10.991316990934243 29.068326542757838 43 51 27 1.7338848128551601 4 9296 5 7393 15 10583 16 11312
9160 7.0634812207118385 -10.532920194779079 30.027648129197878 159 205 202 1.0882492896322344 8 11548 3 11406
1644 -14.432522890888546 7.6455178474259773 30.346905188855725 15 14 12 1.9941175323369655 6 10465 7 10727 4 9847 15 10466 17 10768 16 11189 13 10584 5 7270 8 10175 3 9915 9 11054
4076 -19.192040796904489 -10.838846205649819 34.623651957344045 110 99 76 1.7950569311970259 14 11301 17 10885 15 10607
9163 2.8140461821081075 6.6440989019161867 30.2081245245347 31 33 28 1.6642565114551064 8 11608 2 11172 13 13070
9164 -14.02716515496339 8.1286645511350795 31.828676900484684 24 25 19 0.48597687807471218 4 11323 3 11429
9165 -4.0895237519347534 8.0679143312941726 23.542180368607227 229 226 221 1.4591530480710591 8 11619 3 11446
11824 -1.6606386410164284 -0.31978503386748214 26.95342056939274 112 154 118 0.41408935285705029 19 9667 12 5119
1551 0.24730752321089039 -1.7718972269787032 30.515930038810161 111 150 99 2.2463189551283658 7 9106 14 9538 4 8358 15 8886 6 8889
1650 -4.3746602479554699 6.3265353037496341 19.244366308710724 88 111 65 0.78702223778741631 6 9729 7 9995
4081 8.018199225291017 1.4790799453369174 25.701807417037188 49 69 40 1.4162153581288583 14 11514 15 10810
9168 0.52098268907381029 -8.5945094818421577 31.911941745707669 92 131 102 0.69306902829178485 8 11654 3 11467
9169 1.9093210935200673 -3.111853827517264 22.203887515587848 105 150 89 0.021982931744230251 8 11655 3 11468
4084 -11.426090360530155 5.7241472212120312 31.802903010789812 46 61 46 0.38335304045755936 14 11571 15 10856
9171 -10.883505598688828 2.0370978475536559 35.472483759900335 112 115 101 0.92686225368627306 5 3258 6 3806 7 7565 17 3751 13 7974 18 7742 16 4166 15 3677 8 7100 3 6876 10 7394 11 7411
4085 -14.308870615600751 6.1262967644889912 30.013839458619483 183 175 158 2.2141234100750173 14 11112 15 10866
9172 7.6543601406308666 6.9542966543257103 36.12054538623461 72 69 66 1.7933494754317796 8 11386 18 12098 15 11761 7 11938 14 12506 17 12092 16 12508 13 12837 5 8674 9 12355 19 12382 12 8192 1 10884 10 12033 11 12057 20 12027
9174 8.0759057799573899 7.0901577317095805 35.977950900613436 40 39 36 1.7952435785943837 7 9847 17 9862 8 9289 6 9615 15 4723 17 4823 7 8078 6 7845 16 8480 13 8611 18 8129 8 4464 2 4100 9 10112 9 4653 19 4848 1 3971 10 7927 11 7970 20 4489
9175 -14.520355203349299 -10.757227879773067 28.369571962535577 161 157 120 2.2374838918129218 7 10836 14 11277 17 10858 13 11584 3 10016 15 10581 5 7392 4 9942 2 9773 1 9704
9177 -10.731171618203108 4.3529463125380916 31.043983362935244 22 29 18 1.5097750764156315 8 7456 14 4468 18 8012 17 4333 3 7279 9 10051 1 8693 11 9723
9181 2.6895272136261394 3.6072744633413274 29.983175624218241 20 16 9 1.5969512228907201 7 9742 6 7683 14 10136 17 9719 4 8944 15 9460 13 10340 3 8981 2 7011 9 8052 10 7748
4095 -7.7411503464156972 -14.404254157244294 34.85511118064192 254 255 255 1.9064649529715822 4 9926 7 11180 13 12006 5 7865 8 10250
9182 8.146963754191983 7.159150423843438 35.850166337743282 47 45 42 1.7135070861990942 8 10866 17 11494 14 11909 4 10801 15 10890 13 12497 3 10879 2 10390 9 11794 19 11887 1 10321 10 11491 11 11467
9183 6.2824197797060863 -2.5999880733299268 25.51552922219075 52 67 47 0.96972135964293138 8 2178 13 2349 7 6519 17 2150 4 2106 3 5979
9184 -8.6133664762492703 -3.9640436023954786 34.879958587670345 127 142 101 1.3643567078448144 7 6423 15 2109 17 6439 16 6877 5 1657 13 6842 8 6070 3 5820 9 6419 12 1564 10 6122 11 6137
9185 -0.064789212519476225 0.3541138659190336 29.255676467229836 23 34 18 1.9737039268619225 14 7643 3 6610 17 7295 18 7389 8 6812 2 6444
9186 2.214177053773291 -1.6640333419167728 27.797721500548079 36 50 38 1.8375231360259041 7 11292 3 10544 6 11074 15 11099 16 11823 4 10723 5 8006
9187 -2.1593480454634388 6.7911258735228239 33.946769941205183 4 8 7 1.9718185965900759 5 7759 8 10871 7 11105 4 10221 13 12237 3 10312
4101 -14.691127991301599 6.446752532036701 31.66364900798953 170 165 159 0.3580865091736718 14 11892 8 10884
9188 7.4805869690712949 11.752016197647952 28.464423700138401 56 50 42 1.649912016666929 13 11965 4 10588 17 11537 18 11598 3 10683
9189 -0.043649050431745648 -14.305943766929497 32.026242465077338 245 255 255 1.8620632114889339 5 7853 17 10832 4 9913 6 10932 3 9988
9190 -2.7938201564155332 2.2556448558123865 21.050120370383613 152 153 126 1.2780497502992458 4 9734 8 10035 7 9722 5 7110 3 9798 2 9565
9191 -11.600861780857587 -4.8092942793401425 24.184206804915632 229 232 205 1.6879513648476041 3 9465 6 10678 7 10921 4 9427
9192 -10.954841819977142 -11.879734530013176 35.253811361937579 102 104 97 1.7214698475687999 4 4894 18 5411 6 5316 7 5375 16 5809 13 5776 3 4873 1 4591 10 5101 20 5170
9193 -17.79866657447926 -11.576683949075239 33.108526897455896 28 27 18 1.3737082426392404 7 364 3 4853 4 413 13 260
9194 -13.999837370127002 -11.085107282527765 27.469675830112475 23 31 18 0.72401616562138593 4 4837 16 5695 13 5684 15 413 3 4825
9195 0.72009157951588609 2.9780842702057972 29.218356474142023 61 70 39 1.1788786861326657 8 4068 18 4171 14 4282 17 4074 3 3797 2 3713
9196 -2.5875994083017271 -3.8644380104030986 21.351561298074216 50 70 33 0.35710087351898601 7 1587 3 1522
9197 -13.05533828970267 -10.945048309702832 29.03454752742034 28 30 19 1.6518870314441318 8 172 3 303 17 329 18 228 19 5362
9199 -9.9804509379505362 -5.0563987177724155 24.777419583575913 105 113 65 1.7198478850763685 5 956 15 5787 7 5862 6 5823 4 5429 13 1203 18 1092 8 5515 3 1203 16 6261 2 5176 9 5836 19 5844 12 797 1 1106 10 5580 11 5521
9204 44.074491952710751 9.6979308292026616 68.989178533285411 71 78 47 1.7883265818926515 7 10603 8 9201 3 8959 2 6976 11 9714 20 7834 11 7846 19 8301
4120 -14.263790441743039 7.4576977909673614 31.217741835889925 14 16 13 1.6342472544316693 7 11645 15 11445
9207 43.924432982669103 8.9307307750270315 68.664836578551203 184 163 130 1.3278122148213265 7 10585 8 10042 3 9780 2 9543 11 10600 20 9738
9209 -9.7872093081448153 -4.2740534163339392 35.325085284935611 113 122 92 1.1465607595782095 17 2082 15 2056 16 2520 4 5874 13 6818 3 5773 8 6030 6 6296 2 5589 12 1521 10 6061 11 6087
4123 -13.510062237693768 -13.602661164428946 35.079821537756665 237 229 206 1.1215792892479068 14 12228 15 11487 5 8409 2 10826
9210 3.0888759836150204 11.010368291504218 27.39702341308729 130 130 128 2.1265325338319903 6 9751 4 9888 13 10669 18 10885 3 9960 2 9048 8 10205 9 10320 19 11210 12 6897 1 8973 10 11260
9211 -13.407118049864472 -11.021746777912469 27.911561019678409 14 20 11 1.4060382964851175 17 5388 4 4847 5 206 13 5706 1 4546
9212 -1.9786002856686189 -14.052175938093393 33.168743232978919 138 149 143 2.8433141360179111 18 142 3 213
9213 -13.988227230430033 -11.28497965963569 28.665984283579121 30 40 24 1.6934977324521361 3 278 2 183 8 142
9216 -1.1424781090552079 -6.5361668320043584 33.667839085793254 160 196 168 1.9315190795314465 3 1186 9 1311
4130 -12.748362376579779 2.4965695868775897 32.758282597880651 51 48 41 0.85212385957887049 17 12069 15 11737
9217 48.57870877926166 -0.73396201275255224 72.040756021147033 51 32 18 1.6483031009054316 18 3357 3 2537 9 3115 1 2560
9218 12.18299963640407 0.58729967382196513 26.635322319112944 51 34 19 0.62411361981350832 3 3206 11 3393 8 3425
4133 -8.9246565131799205 -15.501848669267622 32.624250178120469 178 186 187 0.4147350342167283 4 11129 15 11776
9220 9.7178124375281918 0.57097697162940642 18.770989434944259 100 116 50 1.2756615559992497 8 3570 9 3635 3 3478
4137 -20.120337085193214 2.8186416282806102 35.568471223153075 14 16 13 1.2834787500898364 4 11193 15 11834 16 12571
9224 44.435807942280654 8.1446602013844505 68.950930230700322 164 118 66 1.4681985367818167 18 4370 3 3693 2 3628 1 3502 20 4128
1708 0.96008678386560187 -0.015896988336220514 30.349449284129008 104 136 91 0.88058500135172579 7 10455 17 10480
9225 -12.262749364838308 3.9462552716959887 26.591981334591114 79 72 45 1.2724058569956209 18 4568 3 4156 19 4614
9227 -3.7744297003697134 4.2807813612760475 19.446955513816214 102 128 80 1.9505547440313196 13 5035 19 4836 18 4787 3 4504
9228 -13.125064972764854 7.3937135788260022 25.91729123648344 206 212 226 0.79371814187775891 8 4789 3 4605 9 8508
1712 10.805805113845466 2.3050883324367848 24.072204921027421 194 191 127 1.4347454840512281 7 10556 17 10571 16 11026 15 10289 18 10651
9230 -11.80885182589086 8.7733131046898727 24.211997035672411 157 150 140 1.9072406632750571 16 5395 3 4650 1 4367
4144 -13.002971409061233 7.5293963102381616 30.073890153499317 13 13 11 1.7474405641622346 14 12657 15 11905 17 12234
9231 8.8081216531199864 12.286583607816171 29.668524624444455 187 193 193 1.222860108542541 14 5390 3 4674
9235 -1.346241847550274 -2.7913710568217649 32.646854128288766 144 185 106 2.9863746616669884 17 6602 3 5983
4151 9.6707841383979396 8.7870945144466734 30.42976997375391 65 62 55 0.4073870950410271 7 12217 15 12032
9238 12.248341099933251 0.25996433915991907 26.952176154393978 85 108 64 1.9374811479269554 18 7281 3 6619 1 6380 11 7032 13 9963
9239 12.296022788023159 0.26194683426946735 27.043651148275494 85 108 64 2.2879847262056563 18 7280 3 6620 1 6381
4153 -8.5851168764426422 -12.197212944664711 35.023317375213288 152 153 145 1.960417726258326 4 10621 6 11278 7 11196 17 11575 15 11286 13 12327 5 8182 8 10703 3 10715 9 11893
9240 10.977016225468365 1.621665330857927 25.670711915075142 174 189 103 3.3029896013739908 14 7961 3 7014
9243 -9.2335900393520642 -14.2926895926129 32.532493188962199 230 242 232 2.4181365453864014 15 8168 3 7673
9244 -12.771370029662275 -10.987516315157428 29.028447911967234 155 159 134 0.27108440333569006 3 7735 2 7536 12 6149
9245 21.410845680469031 -12.428369824430966 53.370036893916073 48 36 24 2.5820284390337527 5 4563 3 7880
9246 21.410845680469031 -12.428369824430966 53.370036893916073 48 36 24 2.5820284390337527 5 4562 3 7881
9247 47.499575151677647 6.9796936680184274 71.319157312366201 32 42 17 1.3936758139742864 8 9081 18 9807 3 8802
9248 38.412099586511061 8.1182955632627785 67.124041038779012 106 80 64 1.5113062113275577 5 7097 7 9731 3 8888
4162 6.0654577479690577 -9.4423388996056836 24.697466099389104 212 246 221 1.8730777558939833 6 278 15 421 16 484
9249 47.266395864702332 9.2938535505100646 71.081596430972525 162 144 116 1.6108584504128185 8 9177 18 9875 3 8917
4163 6.3447315111638369 -9.2638489517758966 24.383499549625213 161 208 192 2.0408657823992993 14 5582 15 427
9250 -13.237146437555499 8.138771344455666 30.337862649142785 28 24 21 2.9746570766036111 4 7561 3 9218 2 9693
4167 7.3103451429412463 -7.4421969530400132 21.843283902498033 230 255 221 1.6204448427356184 17 368 15 502 16 580
9254 44.764574004426777 8.972851875112303 68.772184171621049 176 156 121 1.4997903506559969 8 10043 18 10729 3 9781 2 9544 11 10601 20 10647
1738 -14.295323297900179 7.6002295058779978 30.45491758912398 82 74 61 1.6873480367149336 6 10463 7 11132 17 10767 4 10261 15 10464 16 11187 13 11932 5 7793 8 10625 3 10368 9 11534
9256 40.168760891027837 7.8001267314358893 68.073354210597543 209 181 142 1.2435771266749232 5 7700 3 10267 20 10639 11 10586
4382 7.8633454488499437 -3.7690007734352466 22.254721938772004 78 94 56 1.7654369956736997 14 1689 15 1617
4391 14.188130354068329 0.18998230648454781 25.243956854495575 76 55 29 0.83756552758659819 15 3360 16 3773 17 3250
4392 13.484396468874673 0.27812350601196623 23.847255416717481 71 50 23 0.84755397005295108 14 3483 15 3387
4397 10.496071316374552 5.9565725147689488 37.201131920125889 136 134 113 0.73879352217518657 14 4820 15 4520 16 4969
4402 -13.730020065086102 7.7987300054093129 34.44744832280599 18 14 15 1.7546443719398801 4 4347 15 4771
4426 4.4245947028697055 -11.017526726241202 26.371146424516972 255 255 255 1.489288303624942 4 7715 15 5208 16 5619
6408 -0.74887490720515792 3.2759559873611424 30.431441010152998 97 114 69 0.68800728639384123 6 9462 15 9431 5 7090 16 11044
8765 -4.871060429107235 -0.19478820523553322 32.24145197220173 175 213 150 0.77424451322404397 4 2830 3 6447 2 6283
6412 -12.388903836326653 4.2661574562968383 27.398942437285761 61 56 37 0.73644408479323742 6 10373 5 7161
1328 7.3263486177779944 -7.1376453118912107 35.524236437365332 56 77 69 1.0024585221022542 6 1297 14 6281
6415 -2.1086021772941255 3.1647939214942293 19.679353374360602 0 0 0 0.26538370142204526 4 9781 6 10383
6416 -2.4734957962704307 7.0157585528863651 33.841595457159649 11 16 10 1.2759465911139627 4 10227 7 10673 5 7213
1330 10.574846310112516 -4.2229665464873012 22.96986406555526 164 192 145 1.0876750667364776 7 6078 4 5584 13 6547
11603 -13.385024046984229 -10.995063853235608 29.483411759219301 64 70 41 0.52951381810978904 19 8699 12 132 1 4566 18 5358 13 5723
6417 -1.1332823366533076 6.8364044592602298 32.59756716006391 6 10 9 2.2201941236296574 6 10416 5 7216 15 10435
6418 -8.9920731695241383 6.5383040716313188 30.793747074694846 98 107 86 1.2449844423343421 5 7218 6 10420 9 11008
8775 42.464812116225062 4.3798492410899827 68.569689654328897 2 3 0 1.3518106121850373 7 3831 3 6789 2 6606 9 3795 8 7086
6422 -0.92334076916058616 7.4824798194425872 31.927491220462084 11 16 12 1.638691780986961 4 9838 5 7257 1 9592 3 9882
8779 11.738607892839273 1.2740007154223498 25.201192192085628 184 203 121 1.5626402089357501 8 3675 3 6929 10 3614 11 3613
6428 -4.4626088081182971 7.2069842416824033 19.438330684852279 0 0 0 2.1483588269819736 15 10506 16 11232
6430 13.819657981193664 -11.650257344291646 24.171169738374026 204 197 179 0.16382659598127483 4 9233 5 7335
6431 13.819657981193664 -11.650257344291646 24.171169738374026 204 197 179 0.16382659598127483 4 9234 5 7336
1345 -3.359382323204501 -3.2577772794258895 20.524982072606093 126 163 86 2.079958275869441 6 6115 14 6463
11618 7.913753413721456 -5.778595699177429 20.919235178038949 162 160 120 0.33212748515359347 19 5586 12 470
6432 -10.482870542707852 -15.20245927317657 30.860414600212266 255 255 250 1.2651952527090322 15 10526 16 10482 5 7338
6433 -10.704520372557393 -14.676329560056626 30.463916286034035 184 197 180 0.60219581543271572 4 9909 16 11276 5 7343
8790 38.765234723044927 6.6395475842883762 68.632838121925317 62 84 97 1.2185490370961727 6 7560 7 9662 3 7002 20 9662
6434 -13.666677396475702 -15.223308927782153 34.393446564585275 253 251 213 1.647569960594198 15 10549 5 7356 6 9803
6437 -13.627635892674844 -12.509213371689254 29.878312054266587 0 0 0 0.63307555557731887 4 9928 6 10555
6438 -14.090068382146283 -13.692541631931871 35.778006746739699 230 226 201 0.011319178698126386 14 11282 5 7386
8795 36.513946090884168 7.3478256649647662 68.976817975761961 212 187 147 1.2014117038718175 4 7079 6 7615 7 7803 3 7043 14 10168 11 7739 20 7738
1352 -9.306359344959823 -3.5343356303579498 23.805138536023485 180 195 166 0.90156960967546418 6 6197 14 6537
6439 13.992389694491758 -11.96304853888808 32.640729946614449 0 0 0 1.9782523951836086 13 11606 15 10580 16 11313
6442 -18.228403100189414 -11.589415370676777 33.009312600798346 199 195 166 1.3324105474118955 4 10356 13 12028 5 7403
6445 -10.43197442258379 -11.505698781248773 35.851758487606737 78 72 60 1.2679715551346851 6 9856 7 10857 5 7411 3 9346
8802 2.4651912869175763 2.8109663789832653 30.191468149722155 9 12 3 0.50511540332433469 8 7288 3 7124 12 5589
6447 -16.629596760286006 -8.7841953172838103 31.247537670961826 52 62 37 1.2635248184798675 15 10622 5 7444 16 11355
6448 -7.0117321946814481 -6.784813573296149 25.80891046338601 37 58 25 1.2331782561303231 6 10637 5 7462 15 9882
6450 7.5756423613198605 -7.4316016870403407 35.786563890352959 0 0 0 0.57604342084292481 17 10229 16 10715
1365 1.5835722822119589 -1.9771903949326675 25.299290033830136 136 185 142 2.0943244006022663 7 6681 14 6952 17 9044 4 6183
6452 -20.226725128681846 -2.8950873374151804 35.974433433254163 0 0 0 0.41210559414905412 13 11738 14 11425
6453 5.15835820269493 -1.8172009439920873 25.297872380048926 65 94 63 1.5924749698550931 4 10088 6 10722 5 7575 15 10723
8810 -7.1321116080482669 3.3168308394911126 30.164444316327216 81 99 51 1.5436512919991934 8 7352 3 7201 9 8026 2 3749 12 3227 1 3578 10 7708 20 7795 11 7725
6463 -1.2747866422722332 6.5634843835326091 34.118391115465883 9 17 13 0.37450733522481167 4 9791 5 7750 3 9842
1377 -0.68549457668766645 -0.48902474929990136 29.419444586150764 46 66 39 0.28231580491977715 6 6914 14 7413 16 7414
11650 9.6080945947995016 -1.7024229591460853 20.391508165490862 0 0 0 1.0258550431864164 8 6318 13 2549
6464 -12.37712152870392 6.466242490737983 32.99165804458697 31 37 27 0.078033934105235139 7 11102 5 7751
6467 -2.2597644809967385 7.5137148091909252 35.26436739603335 0 0 0 0.74901623873297063 6 10422 14 11612
6469 0.875941954139279 10.868040416134406 26.512579315393602 0 0 0 1.297029364153673 13 11959 14 11649
8826 -13.98232491827091 5.7919620722195315 32.892710846443237 36 32 22 1.1418104066913235 7 4614 3 7359 6 4547
6470 0.065827257809435893 11.337201359378536 27.304898189658314 155 151 142 1.3411144175943681 15 10941 16 11965 5 7832
6471 -10.290735641964535 -14.715541088905999 30.405696680641324 200 208 197 1.1093547692403223 4 10308 15 10952 16 11274 5 7839
6473 8.9710452826465943 -12.093107824550005 26.044813214245821 86 82 70 0.13335206414277756 4 10315 5 7845
8830 -14.881799254883514 6.2295634130993074 30.971310481585167 163 163 153 0.10757742736927431 4 4253 3 7416
6474 -16.184148288962454 -14.561782022149274 31.655592946510652 0 0 0 1.0438963905938403 4 10318 6 10930
6476 -10.825111716909925 -14.213467015666353 32.367111881833722 0 0 0 0.81505032225802165 6 10935 7 11440
6480 4.6917376735682721 -10.86999666881743 26.221783395963396 0 0 0 0.54324421803279421 6 10945 15 10976
6482 10.739140391171158 -11.490719333314255 34.585926753082056 105 101 90 1.4893338860427914 15 11288 16 11730 5 7886
6483 -0.90342841305616883 -11.004151772349296 33.023586949425635 186 207 192 1.3681969908004796 5 7890 8 10708 3 10723 9 10406
8840 -10.265793796361958 6.714660000382314 29.306146956302459 255 255 208 1.5834254834688191 8 4659 3 7507 2 7289 1 7184 10 8073 20 8131 19 8499
6488 2.1914398617103559 -1.6641894609522709 28.004894684652925 151 199 161 1.141639882359424 6 11073 15 11100 5 8007
6494 2.528258223639384 5.7695193061022234 30.778285409665692 30 31 25 0.90369351913205309 4 10523 5 8105 3 10309 4 10212 2 9605
1414 8.1407155562262403 2.1520844841740061 25.661444333290973 118 122 97 2.8522361507356893 6 7506 14 8092 4 7113 15 7521
6501 -4.3710450444947142 7.3565797951966472 19.303501811177568 114 125 82 1.3444679869091447 15 10934 16 11954 5 8146
6502 -0.26431040752694923 11.379928770859777 27.314660131858833 155 148 138 1.8410628050311442 15 11469 5 8155 16 12189
6503 -1.4092694150218759 -14.012350856994468 30.917839670192603 47 47 47 1.673076434428272 15 11263 5 8160
6504 -7.8373208809801351 -14.593273594447098 32.602150330404449 254 255 253 1.5009977852600933 15 10963 16 11693 5 8161 6 10934
6506 -8.1427009878789924 -14.007364546869947 33.716584298566261 254 255 242 0.61784435405243454 15 11273 5 8167
6508 -11.376264137923997 -12.988539458990305 35.404013689207453 177 178 167 1.8485033407202784 17 11569 5 8176 14 11975
6511 -11.009540680573087 -11.657821852205679 35.389091314991958 201 198 186 1.4719630018607672 7 11468 13 12339 8 11158 3 10938 2 10678 12 7956 1 10629 5 8195 10 11788 11 11567 20 11787
8868 -14.154449286691847 -10.312812516839589 30.289511788839174 192 194 188 0.8368375404619729 3 7758 2 7549
6512 -14.084965410331669 -9.6637471113393545 29.693839783262828 82 80 65 0.09210047710246741 7 11471 8 10949
1428 -8.8866797022740975 3.3634029746790026 30.334743858659049 15 23 10 0.77998814667945682 6 4204 14 8163 16 4535 8 7359 19 8148 12 3237 1 6865 10 7716
6515 0.06984258377131021 -7.6228802663325936 28.492959776067384 148 165 132 1.5752368856977954 6 11304 5 8217
6516 7.1587364598582219 -7.1111836287902692 35.844889133274286 0 0 0 1.6990159126007534 6 11328 14 11778 17 11614
6517 -9.0225442116113719 -5.2714614278801939 25.221298718607621 29 37 22 0.91525347926868628 7 11510 5 8236 8 10982
6520 -1.9355008456233915 1.4249440460127321 22.376051483765718 115 141 98 0.95465220272246487 4 10772 5 8321
6521 0.74854618169215648 3.0187799630009189 27.848549340607331 53 61 46 0.24517075258547 6 11405 5 8334
11609 20.838536734288837 -11.901334979936884 34.479500214780451 0 0 0 0.47812890728956581 16 8835 17 8478
1336 7.858172643081498 -6.524217962445559 34.902915235160563 89 116 97 0.59206200315760882 7 6020 13 6543 18 6091
6522 -2.0016321439058609 7.2951236812597404 36.61271423677136 6 12 10 1.8704598186408985 4 10526 5 8354
1439 1.9665660759864334 3.2593495440156728 29.447355171173605 70 57 47 1.9163656461213319 6 7654 7 7853 14 8198 17 7822 4 3818 15 7658 16 8205 5 3739 8 9162 18 9799 3 3834 2 8741 9 4277 19 10107 12 5647 1 8641 11 9647 20 9674
6526 -3.6240343966913202 3.8806045473533941 20.132690486718328 241 255 223 2.0732288706371471 16 12136 5 8362
6531 2.9321030817154612 11.361199012899352 27.930021170238454 135 132 123 0.71487514702123367 15 11466 16 12185 5 8393
6532 1.5876930395569533 11.277696927492871 27.431706911425053 147 143 132 0.33937743105450063 15 11468 5 8395
6534 -1.3921693152352912 -8.5418564363642631 35.800953419796301 93 135 105 0.4958377402662893 4 10664 5 8427
8891 -6.4618138200415522 -0.89610901652315211 21.553172566674604 141 175 94 1.249499922888561 8 8644 3 8471 18 9180
1448 -9.745849910603976 4.1555396897281849 30.896815676087549 12 23 11 0.87235194509146041 7 7939 14 8243 13 10355
6535 1.9291163512922032 -2.8103617074262286 27.917279882167517 33 57 33 0.44092680695731745 15 11354 5 8464
1449 -9.7468689988359358 4.1546384296067131 30.896105707671211 12 23 11 0.75895844364175913 7 7940 14 8244 4 7267 13 10356
6536 6.6642373978376339 0.0045119198236595231 25.944723414842898 77 109 70 1.1902896052892251 6 11565 5 8496 15 11563
1450 -10.382099106548479 4.2462845360442447 31.067868363416775 49 65 38 1.3696901107645323 6 7727 14 8246 17 7902 15 7701 16 4665 13 8374 5 3841
6537 0.19755425568190488 0.12547238428771817 25.312458225288459 51 75 49 0.36913694738776065 6 11567 5 8497
6539 -1.6478194102377726 1.251578168093723 23.119022913089282 168 210 168 1.0212883463583324 4 10767 6 11398 5 8513
6540 -14.075626948955762 5.8799331206634298 27.368395386744261 30 27 20 0.88149262892316638 4 10961 5 8535
1455 -9.7209450876396968 4.3786725532728497 30.984500058980963 17 29 19 0.78988487448838018 7 7954 14 8269 17 7917 4 7284
11728 -10.415161962519148 6.4111696255972115 35.139133563280268 13 20 12 1.5371471974882169 8 9279 20 10718
6542 -9.6691555645067915 7.3940282504697503 29.111956776694754 44 38 26 1.6444319189415602 6 11600 14 12170 5 8542
6545 12.262556027562981 11.713840339205545 34.834298031547156 134 127 111 0.77345712774927455 13 12704 15 11631 16 12374 8 11290
6549 -14.877383009503525 -13.911213248286346 34.06131108596017 207 200 171 2.1645900566932945 15 11646 5 8564 6 11623
1463 1.1233331975851333 4.2567391688038034 29.868307131265844 152 138 103 1.0135929468230074 6 7742 14 8306 17 9749 4 7291 15 7733 16 8285 13 10393
6550 -14.118738665445029 -10.766030277613289 27.530660028795047 26 35 19 0.14559676532895044 4 10988 5 8566
1465 -10.225150610908443 4.968408654801304 31.124404671613256 33 47 24 1.2886725711796125 6 4479 7 4544 14 8320 4 4076 15 4350 13 8450 2 7112 19 8342
6552 -1.3747575062693089 -9.3052869768889312 34.972247953505516 40 50 51 0.95588331734556031 15 11665 5 8577
11640 -9.0951420209500995 -4.6642336477798558 35.423575358059082 56 59 32 0.53261789086032918 2 5516 12 1458 20 6213
1367 -4.8612059611268066 -2.785105905200767 34.338678351239146 111 149 102 1.5987553339477951 7 6633 17 6635
6553 -1.3747575062693089 -9.3052869768889312 34.972247953505516 40 50 51 0.95588331734556031 15 11666 5 8578
6554 6.5011629903699726 -2.7852816042492385 20.926165577748709 196 227 194 0.64813644672379533 6 11528 5 8608
6555 33.291357394942239 5.0513131287678705 70.19465343879628 0 0 0 1.6681270243053758 4 11076 16 12496 15 11741
1469 1.6088415552657125 5.154316271049284 29.823691033231754 79 60 45 1.2715817094609507 6 7789 14 8396 13 10447 8 7520 3 7354 9 8208 12 5797 1 7025 10 9824 5 3963 11 9759
6556 -11.99936731291325 6.1565139048710629 37.522665225951307 59 75 48 2.3442042897444808 14 12494 5 8665
1472 1.9628057146490812 5.6013959220432836 30.020702427828283 113 93 68 0.91468138326988058 6 7822 14 8436 17 8047 7 4668 16 8405 13 8550 5 3994 18 4726 8 4446 3 4267 2 4098 20 4459
6559 -3.4885874386718103 6.1516187903124298 33.118816248177666 0 0 0 1.0528060201524803 6 11589 15 11607 16 12348
6560 7.1094232975854847 7.1746268276857634 30.859077983115185 0 0 0 1.1759645052502641 6 11796 15 11765 16 12363
1477 -13.042919610653216 6.4914072961335876 28.350591950945944 26 23 14 1.2004144422936791 6 7931 14 8508 5 4110
6564 9.6839778491362924 -12.032884331431026 30.573722037646295 0 0 0 0.7609828350491662 6 11726 16 12533 7 11962
